0.508348 0.33223 0.486783
0.508385 0.271453 0.313849
0.484798 0.282664 0.383739
0.498059 0.328603 0.489016
0.462834 0.269507 0.394133
0.493798 0.319844 0.494412
0.469725 0.255118 0.428708
0.498058 0.311085 0.499811
0.508361 0.248648 0.443352
0.508346 0.307459 0.502048
0.547002 0.255123 0.428724
0.518635 0.311086 0.499815
0.553905 0.269513 0.394151
0.522896 0.319845 0.494418
0.518636 0.328604 0.48902
0.531943 0.282667 0.383748
0.508361 0.303838 0.426415
0.508398 0.237889 0.260394
0.485044 0.248991 0.329592
0.492771 0.29834 0.4298
0.463296 0.235965 0.339882
0.486312 0.285067 0.437978
0.47012 0.221716 0.374117
0.492769 0.271795 0.446158
0.508374 0.215311 0.388617
0.508359 0.266298 0.449549
0.546632 0.22172 0.374132
0.523949 0.271797 0.446164
0.553468 0.23597 0.3399
0.530408 0.285069 0.437986
0.523951 0.298341 0.429806
0.531723 0.248994 0.329601
0.504189 0.266473 0.369892
0.486198 0.17538 0.183174
0.475966 0.209357 0.279666
0.489759 0.262026 0.374107
0.458719 0.200353 0.29045
0.483779 0.249966 0.38215
0.467079 0.196671 0.33082
0.489757 0.237361 0.389306
0.499058 0.193431 0.34568
0.504186 0.231593 0.391386
0.528665 0.193856 0.326259
0.518616 0.236042 0.387169
0.531299 0.197036 0.285075
0.524596 0.2481 0.379128
0.518618 0.260707 0.37197
0.513543 0.20764 0.276883
0.502541 0.239124 0.330831
0.504369 0.153775 0.165107
0.488134 0.180935 0.241024
0.490797 0.235336 0.333075
0.473707 0.173471 0.24829
0.485603 0.225607 0.339048
0.477262 0.170725 0.281094
0.490005 0.215632 0.345254
0.501608 0.168679 0.295437
0.50142 0.21126 0.348054
0.526689 0.169472 0.282285
0.513164 0.215045 0.345811
0.531953 0.171995 0.249693
0.518359 0.224777 0.339837
0.513957 0.234749 0.333633
0.518288 0.180171 0.24175
0.504599 0.20152 0.279428
0.509481 0.133411 0.152471
0.494276 0.157366 0.211838
0.494917 0.199192 0.280671
0.481996 0.152343 0.217005
0.489929 0.19183 0.285313
0.483028 0.150554 0.243414
0.492558 0.183741 0.290638
0.501581 0.14783 0.256141
0.501262 0.179666 0.293526
0.52226 0.146827 0.246922
0.510944 0.181994 0.292282
0.528235 0.147951 0.22114
0.515932 0.18936 0.287638
0.513303 0.197446 0.282315
0.518213 0.155092 0.213979
0.503694 0.176102 0.244065
0.504427 0.118961 0.134729
0.494376 0.136203 0.183438
0.496238 0.17355 0.245601
0.485289 0.131268 0.188209
0.493074 0.167268 0.249472
0.487868 0.129566 0.209174
0.496049 0.160939 0.253408
0.503589 0.128532 0.218151
0.503427 0.158266 0.255107
0.519518 0.129307 0.209522
0.510883 0.160818 0.253571
0.522585 0.130963 0.188619
0.514047 0.167097 0.249702
0.511072 0.173428 0.245764
0.513687 0.136045 0.18365
0.503456 0.149603 0.205373
0.4945 0.101139 0.114736
0.490407 0.115136 0.15424
0.497578 0.147715 0.207146
0.483418 0.111376 0.158719
0.495211 0.142757 0.210473
0.48697 0.109964 0.175233
0.497742 0.137634 0.213404
0.500126 0.108816 0.181236
0.503686 0.135345 0.214224
0.512197 0.109108 0.173198
0.509564 0.137233 0.21245
0.513146 0.110368 0.156321
0.511931 0.142191 0.209124
0.509401 0.147314 0.206192
0.505799 0.114614 0.152998
0.500223 0.129302 0.176476
0.491924 0.0876808 0.0977682
0.489005 0.0989874 0.12937
0.495595 0.127675 0.178001
0.483572 0.09585 0.133086
0.493869 0.123676 0.180725
0.486721 0.094884 0.146242
0.496051 0.119648 0.183051
0.497365 0.0942819 0.150826
0.500868 0.117951 0.183617
0.506876 0.0947397 0.144193
0.505496 0.119581 0.182091
0.507326 0.0956798 0.130671
0.507222 0.12358 0.179367
0.50504 0.127607 0.177041
0.501302 0.0988994 0.12812
0.496663 0.109782 0.148842
0.496285 0.0745439 0.0851899
0.491686 0.0833235 0.110251
0.492946 0.108303 0.149783
0.487256 0.0806022 0.112891
0.491559 0.105029 0.151848
0.489025 0.0798827 0.12357
0.493311 0.10188 0.153824
0.497262 0.0797737 0.127852
0.497179 0.100701 0.154555
0.505215 0.0805197 0.123121
0.500896 0.102179 0.153614
0.506329 0.0813527 0.112362
0.502284 0.105451 0.151551
0.500531 0.108602 0.149573
0.50156 0.0837121 0.109977
0.496424 0.0902778 0.123578
0.491733 0.0680977 0.0796783
0.489913 0.0753332 0.0999079
0.493475 0.0892183 0.124568
0.48646 0.0733037 0.102302
0.49239 0.0866515 0.126318
0.48852 0.0727003 0.110712
0.493814 0.0840849 0.1278
0.495346 0.0723607 0.113614
0.496903 0.0830191 0.128148
0.50141 0.0726868 0.109341
0.499852 0.0840786 0.127158
0.501656 0.0732877 0.100686
0.500937 0.0866425 0.12541
0.499513 0.089212 0.123926
0.497781 0.0753249 0.0990713
0.496488 0.0728816 0.108422
0.496472 0.0694621 0.102924
0.495392 0.0641421 0.0830628
0.498247 0.0758942 0.106543
0.495965 0.0789037 0.104678
0.497028 0.0616976 0.0845784
0.504011 0.0563065 0.0739552
0.48431 0.0550983 0.0747648
0.492986 0.059731 0.0858134
0.491323 0.0618573 0.0844959
0.492547 0.0726399 0.108584
0.490176 0.0757792 0.106638
0.492024 0.0786619 0.10484
0.495761 0.0599012 0.0856994
0.494126 0.0514713 0.0769917
0.493967 0.0601354 0.0716034
0.492617 0.063972 0.0831768
0.493989 0.025 0.025
0.453739 0.199084 0.282456
0.443993 0.204982 0.313435
0.456374 0.231442 0.298069
0.461548 0.218322 0.376033
0.460703 0.20767 0.371199
0.454519 0.174106 0.308405
0.488266 0.202959 0.310157
0.461543 0.218451 0.375882
0.446007 0.182465 0.35452
0.461682 0.208223 0.384077
0.454998 0.144601 0.333079
0.454993 0.157241 0.325215
0.458343 0.199512 0.344361
0.46976 0.181379 0.352761
0.4627 0.172782 0.388898
0.462636 0.160152 0.33886
0.449055 0.160773 0.339866
0.457493 0.17302 0.389284
0.464756 0.181002 0.404029
0.458441 0.181291 0.404497
0.469002 0.173194 0.416782
0.455421 0.173814 0.417788
0.467433 0.154161 0.407344
0.461625 0.165333 0.409775
0.453852 0.154781 0.40835
0.468105 0.167379 0.408262
0.454525 0.168 0.409268
0.463241 0.168676 0.39874
0.458034 0.168914 0.399125
0.461534 0.144945 0.333375
0.447953 0.145566 0.334381
0.454498 0.151794 0.327661
0.550869 0.196953 0.304816
0.536179 0.207402 0.277168
0.538811 0.227607 0.306876
0.543995 0.177242 0.367815
0.543151 0.170438 0.358299
0.536965 0.172795 0.287137
0.506596 0.197057 0.308668
0.552977 0.156753 0.330126
0.544076 0.177282 0.36875
0.544218 0.164326 0.370727
0.537537 0.134756 0.294743
0.53753 0.149635 0.294258
0.540876 0.176655 0.331985
0.529224 0.156808 0.332193
0.532273 0.14536 0.308648
0.540714 0.131239 0.357563
0.545922 0.131227 0.35711
0.545854 0.145328 0.307467
0.541659 0.130785 0.374873
0.547975 0.130771 0.374324
0.538646 0.117665 0.38264
0.552227 0.117633 0.381458
0.537079 0.105907 0.364945
0.544169 0.114334 0.371518
0.550659 0.105876 0.363763
0.537749 0.116893 0.372354
0.55133 0.116861 0.371172
0.541257 0.122757 0.36403
0.546464 0.122744 0.363577
0.531173 0.134938 0.29629
0.544754 0.134906 0.295108
0.537884 0.143693 0.293574
0.508343 0.357632 0.50356
0.508362 0.313194 0.419
0.493985 0.309697 0.459124
0.500228 0.355544 0.506197
0.480597 0.30813 0.472366
0.496867 0.350508 0.512559
0.484795 0.307093 0.49517
0.500226 0.345472 0.518922
0.508346 0.306439 0.50491
0.50834 0.343387 0.521559
0.5319 0.307095 0.49518
0.516455 0.345473 0.518925
0.536107 0.308134 0.472377
0.519817 0.350509 0.512563
0.516457 0.355545 0.5062
0.522724 0.309698 0.45913
0.508343 0.378096 0.500643
0.508352 0.341832 0.462076
0.496851 0.33267 0.491632
0.501445 0.378425 0.50348
0.486142 0.334552 0.499587
0.498586 0.37922 0.510331
0.489502 0.336153 0.521369
0.501442 0.380014 0.517183
0.508339 0.339517 0.530469
0.508339 0.380344 0.520022
0.52718 0.336155 0.521376
0.515236 0.380015 0.517185
0.530548 0.334555 0.499595
0.518095 0.379221 0.510334
0.515239 0.378426 0.503483
0.519842 0.332671 0.491636
0.508337 0.411329 0.51999
0.508349 0.355743 0.474511
0.499147 0.373154 0.495945
0.503174 0.410311 0.521871
0.490579 0.370734 0.502019
0.501033 0.407856 0.526413
0.493267 0.372606 0.51651
0.503172 0.405401 0.530955
0.508338 0.373272 0.522721
0.508335 0.404384 0.532839
0.523412 0.372608 0.516516
0.513498 0.405401 0.530957
0.526107 0.370736 0.502026
0.515639 0.407856 0.526416
0.513499 0.410311 0.521873
0.51754 0.373155 0.495949
0.50833 0.422725 0.553311
0.508342 0.41223 0.495841
0.50098 0.411879 0.517927
0.504587 0.421286 0.553881
0.494127 0.407269 0.520407
0.503038 0.417806 0.555259
0.496279 0.400968 0.53025
0.504587 0.414326 0.556638
0.508335 0.398186 0.534399
0.508329 0.412887 0.55721
0.520392 0.400969 0.530255
0.512072 0.414327 0.55664
0.522547 0.40727 0.520412
0.513621 0.417807 0.555261
0.512072 0.421286 0.553882
0.515694 0.41188 0.517929
0.494994 0.422426 0.574262
0.492527 0.421043 0.574533
0.493161 0.419533 0.575698
0.495892 0.420293 0.575912
0.493424 0.417557 0.575447
0.496264 0.417499 0.575555
0.493161 0.416272 0.573925
0.495893 0.415678 0.573405
0.492527 0.416428 0.572025
0.494995 0.415902 0.570718
0.491893 0.417937 0.57086
0.494097 0.418035 0.569068
0.491629 0.419913 0.57111
0.493726 0.420829 0.569425
0.491892 0.421199 0.572632
0.494097 0.42265 0.571575
0.491506 0.418558 0.573605
0.522792 0.418559 0.573611
0.521772 0.421044 0.574538
0.521137 0.419535 0.575703
0.520873 0.417558 0.575453
0.521137 0.416273 0.573931
0.521772 0.416429 0.572031
0.522407 0.417938 0.570866
0.52267 0.419915 0.571116
0.522407 0.4212 0.572638
0.519304 0.422427 0.574267
0.518406 0.420295 0.575917
0.518034 0.4175 0.57556
0.518406 0.41568 0.573409
0.519305 0.415904 0.570723
0.520203 0.418036 0.569073
0.520574 0.420831 0.56943
0.520202 0.422651 0.571581
0.497495 0.418217 0.563222
0.501762 0.396683 0.587119
0.513548 0.396684 0.587121
0.517822 0.418218 0.563226
0.504741 0.385178 0.605729
0.510563 0.385179 0.605731
0.505339 0.384168 0.610152
0.509964 0.384169 0.610153
0.504812 0.382162 0.604687
0.510492 0.382163 0.604688
0.50205 0.391839 0.586877
0.513261 0.39184 0.586879
0.497498 0.402709 0.554796
0.517824 0.40271 0.5548
0.496663 0.409007 0.551257
0.51866 0.409008 0.551261
0.496161 0.421507 0.553874
0.519159 0.421508 0.553878
0.521344 0.434108 0.547296
0.51709 0.429162 0.535315
0.507026 0.435954 0.543894
0.507029 0.432721 0.528762
0.507014 0.382537 0.616858
0.514005 0.391059 0.605532
0.507015 0.394865 0.610324
0.514005 0.400823 0.59936
0.517086 0.441704 0.548229
0.507025 0.441704 0.548227
0.496959 0.441703 0.548225
0.50702 0.424273 0.576192
0.521653 0.426868 0.57436
0.507022 0.441019 0.563473
0.517084 0.439977 0.562909
0.515546 0.414073 0.584168
0.507019 0.414072 0.584167
0.498489 0.414072 0.584165
0.522737 0.4109 0.568928
0.520021 0.419743 0.573733
0.517103 0.405229 0.579363
0.507016 0.391208 0.605255
0.496935 0.405227 0.579359
0.526877 0.426604 0.540026
0.526875 0.435448 0.544831
0.526874 0.441705 0.548231
0.526874 0.430643 0.553675
0.52767 0.421799 0.54887
0.526872 0.437693 0.561669
0.512912 0.503648 0.492911
0.533069 0.49341 0.494077
0.553884 0.46903 0.496852
0.549033 0.452014 0.498784
0.496962 0.429161 0.535311
0.492707 0.434107 0.54729
0.500028 0.391058 0.60553
0.500028 0.400823 0.599357
0.491304 0.410898 0.568922
0.486378 0.421797 0.548862
0.487174 0.426602 0.540018
0.492384 0.426866 0.574354
0.496956 0.439976 0.562905
0.494021 0.419742 0.573728
0.487172 0.435446 0.544823
0.487171 0.441703 0.548223
0.487171 0.430641 0.553667
0.487169 0.437691 0.561661
0.501149 0.503648 0.492909
0.480995 0.493407 0.494067
0.460179 0.469024 0.496834
0.465031 0.45201 0.498768
0.507256 0.423978 0.548893
0.507234 0.423561 0.549516
0.507262 0.42358 0.549531
0.507272 0.423259 0.549872
0.507297 0.423443 0.549596
0.507371 0.423156 0.549841
0.507235 0.423161 0.549738
0.50718 0.423105 0.54975
0.507233 0.423532 0.549493
0.507038 0.422888 0.55042
0.507267 0.42331 0.549975
0.507347 0.422909 0.550613
0.507355 0.423278 0.54995
0.507427 0.422788 0.550262
0.507242 0.423088 0.549799
0.507234 0.422433 0.550319
0.507154 0.42312 0.549824
0.507207 0.42318 0.549933
0.50726 0.423242 0.549983
0.507297 0.423241 0.549982
0.507322 0.42322 0.549965
0.507337 0.423122 0.549909
0.507235 0.423073 0.549848
0.507198 0.423074 0.549849
0.507173 0.423096 0.549866
0.507251 0.422614 0.550612
0.515733 0.293592 0.463287
0.525978 0.312767 0.452553
0.531811 0.284972 0.440322
0.542136 0.316835 0.468068
0.536808 0.293324 0.464648
0.565056 0.327838 0.437779
0.54786 0.300635 0.437004
0.558533 0.321359 0.454915
0.554104 0.300176 0.447789
0.629964 0.353926 0.399978
0.631063 0.347183 0.396305
0.63337 0.356394 0.408168
0.63427 0.348692 0.403204
0.638229 0.353753 0.397398
0.529085 0.240714 0.357876
0.618983 0.312468 0.317786
0.631055 0.34718 0.39631
0.632479 0.357765 0.407428
0.633026 0.357295 0.40091
0.639057 0.349963 0.40543
0.673421 0.399388 0.408392
0.675671 0.394109 0.423664
0.684354 0.386099 0.416584
0.793053 0.50362 0.417774
0.799144 0.497173 0.41801
0.793979 0.501446 0.424063
0.798503 0.496995 0.421858
0.813915 0.511517 0.421566
0.809046 0.502079 0.412753
0.813063 0.5086 0.41797
0.822214 0.512293 0.411748
0.616531 0.31102 0.318678
0.672911 0.333786 0.283072
0.733847 0.317525 0.21372
0.793984 0.391387 0.206685
0.764517 0.377829 0.224018
0.841403 0.372928 0.160053
0.860409 0.423937 0.180427
0.911761 0.546071 0.122676
0.975 0.604236 0.0308621
0.807939 0.502867 0.412242
0.899782 0.507208 0.130727
0.859803 0.423964 0.18028
0.872121 0.452232 0.164858
0.914569 0.461674 0.104142
0.480726 0.28485 0.440349
0.489923 0.311265 0.453576
0.496233 0.293597 0.46328
0.470977 0.316289 0.468181
0.475155 0.293333 0.464633
0.464352 0.30059 0.436999
0.44796 0.327245 0.437706
0.454537 0.320779 0.45492
0.458104 0.300136 0.447781
0.38094 0.347205 0.396245
0.382035 0.353948 0.399918
0.378629 0.356419 0.408105
0.377728 0.348716 0.403142
0.373775 0.353777 0.397336
0.482901 0.2407 0.357875
0.393352 0.312211 0.317746
0.378365 0.357288 0.400729
0.379103 0.357916 0.407215
0.380947 0.347274 0.396214
0.37308 0.3496 0.405578
0.33512 0.396288 0.409029
0.333826 0.39113 0.42445
0.325543 0.382351 0.41782
0.202628 0.484295 0.421712
0.208192 0.491186 0.421156
0.207659 0.489061 0.427504
0.203419 0.48424 0.425535
0.186926 0.497527 0.425583
0.187877 0.494619 0.422005
0.336296 0.328646 0.284801
0.395486 0.310926 0.318674
0.274397 0.306493 0.217979
0.239537 0.364447 0.228453
0.192201 0.488329 0.416746
0.208519 0.375386 0.211998
0.16106 0.352493 0.167422
0.138895 0.40226 0.187683
0.025 0.57859 0.0328153
0.0879671 0.52293 0.126355
0.191105 0.487686 0.417239
0.0998811 0.484291 0.135512
0.139649 0.402414 0.187453
0.127397 0.430255 0.17122
0.085095 0.438054 0.110172
0.507716 0.419474 0.568722
0.504033 0.41817 0.568218
0.501599 0.415053 0.566691
0.503005 0.412445 0.56524
0.505505 0.409856 0.563744
0.509369 0.411211 0.564267
0.511546 0.413856 0.565557
0.510629 0.417494 0.567528
0.508471 0.420856 0.573884
0.502332 0.418683 0.573043
0.498275 0.413488 0.570498
0.500618 0.409141 0.56808
0.504785 0.404825 0.565587
0.511225 0.407085 0.566459
0.514854 0.411492 0.568608
0.513326 0.417555 0.571893
0.508363 0.39892 0.596103
0.508302 0.398898 0.596095
0.508261 0.398846 0.596069
0.508285 0.398803 0.596045
0.508326 0.39876 0.59602
0.508391 0.398782 0.596029
0.508427 0.398826 0.596051
0.508412 0.398887 0.596083
0.507477 0.291155 0.339225
0.507477 0.290989 0.34027
0.506862 0.290989 0.34007
0.506483 0.290989 0.339548
0.506483 0.290989 0.338902
0.506862 0.290989 0.33838
0.507477 0.290989 0.33818
0.508091 0.290989 0.33838
0.50847 0.290989 0.338902
0.50847 0.290989 0.339548
0.508091 0.290989 0.34007
0.507477 0.290509 0.341212
0.506308 0.290509 0.340833
0.505587 0.290509 0.339839
0.505587 0.290509 0.338611
0.506308 0.290509 0.337617
0.507477 0.290509 0.337238
0.508645 0.290509 0.337617
0.509367 0.290509 0.338611
0.509367 0.290509 0.339839
0.508645 0.290509 0.340833
0.507477 0.289761 0.34196
0.505869 0.289761 0.341438
0.504875 0.289761 0.34007
0.504875 0.289761 0.33838
0.505869 0.289761 0.337012
0.507477 0.289761 0.33649
0.509084 0.289761 0.337012
0.510078 0.289761 0.33838
0.510078 0.289761 0.34007
0.509084 0.289761 0.341438
0.507477 0.288818 0.342441
0.505587 0.288818 0.341826
0.504418 0.288818 0.340219
0.504418 0.288818 0.338231
0.505587 0.288818 0.336624
0.507477 0.288818 0.33601
0.509367 0.288818 0.336624
0.510535 0.288818 0.338231
0.510535 0.288818 0.340219
0.509367 0.288818 0.341826
0.507477 0.287774 0.342606
0.505489 0.287774 0.34196
0.504261 0.287774 0.34027
0.504261 0.287774 0.33818
0.505489 0.287774 0.33649
0.507477 0.287774 0.335844
0.509464 0.287774 0.33649
0.510692 0.287774 0.33818
0.510692 0.287774 0.34027
0.509464 0.287774 0.34196
0.507477 0.286729 0.342441
0.505587 0.286729 0.341826
0.504418 0.286729 0.340219
0.504418 0.286729 0.338231
0.505587 0.286729 0.336624
0.507477 0.286729 0.33601
0.509367 0.286729 0.336624
0.510535 0.286729 0.338231
0.510535 0.286729 0.340219
0.509367 0.286729 0.341826
0.507477 0.285786 0.34196
0.505869 0.285786 0.341438
0.504875 0.285786 0.34007
0.504875 0.285786 0.33838
0.505869 0.285786 0.337012
0.507477 0.285786 0.33649
0.509084 0.285786 0.337012
0.510078 0.285786 0.33838
0.510078 0.285786 0.34007
0.509084 0.285786 0.341438
0.507477 0.285038 0.341212
0.506308 0.285038 0.340833
0.505587 0.285038 0.339839
0.505587 0.285038 0.338611
0.506308 0.285038 0.337617
0.507477 0.285038 0.337238
0.508645 0.285038 0.337617
0.509367 0.285038 0.338611
0.509367 0.285038 0.339839
0.508645 0.285038 0.340833
0.507477 0.284558 0.34027
0.506862 0.284558 0.34007
0.506483 0.284558 0.339548
0.506483 0.284558 0.338902
0.506862 0.284558 0.33838
0.507477 0.284558 0.33818
0.508091 0.284558 0.33838
0.50847 0.284558 0.338902
0.50847 0.284558 0.339548
0.508091 0.284558 0.34007
0.507477 0.284393 0.339225
0.494786 0.423897 0.56271
0.492213 0.422706 0.56271
0.491405 0.420516 0.56271
0.492213 0.4185 0.562709
0.494786 0.417134 0.562709
0.497109 0.418247 0.562709
0.498167 0.420516 0.56271
0.496984 0.422706 0.56271
0.494786 0.423188 0.571271
0.492213 0.421998 0.571271
0.491405 0.419807 0.57127
0.492213 0.417789 0.57127
0.494786 0.416426 0.57127
0.497109 0.417538 0.57127
0.498167 0.419807 0.57127
0.496984 0.421998 0.571271
0.519508 0.424309 0.562626
0.516935 0.423119 0.562626
0.516127 0.420928 0.562625
0.516935 0.418913 0.562625
0.519508 0.417547 0.562625
0.521831 0.418659 0.562625
0.522889 0.420928 0.562625
0.521706 0.423119 0.562626
0.519508 0.423601 0.571187
0.516935 0.422411 0.571186
0.516127 0.42022 0.571186
0.516935 0.418201 0.571185
0.519508 0.416839 0.571185
0.521831 0.417951 0.571185
0.522889 0.42022 0.571186
0.521706 0.422411 0.571186