3.0 3.0 58.0
9.0 11.0 44.0
9.0 13.0 52.0
10.0 14.0 48.0
10.0 19.0 53.0
13.0 17.0 43.0
13.0 23.0 45.0
13.0 22.0 47.0
13.0 23.0 50.0
14.0 19.0 40.0
15.0 26.0 44.0
16.0 17.0 35.0
16.0 26.0 41.0
19.0 27.0 41.0
19.0 42.0 49.0
19.0 43.0 50.0
20.0 42.0 48.0
20.0 43.0 48.0
20.0 42.0 49.0
20.0 43.0 49.0
21.0 21.0 38.0
21.0 29.0 41.0
21.0 36.0 45.0
21.0 42.0 49.0
21.0 43.0 49.0
24.0 23.0 36.0
24.0 29.0 39.0
24.0 42.0 45.0
25.0 43.0 45.0
25.0 42.0 46.0
26.0 41.0 44.0
27.0 22.0 31.0
27.0 31.0 37.0
29.0 42.0 42.0
29.0 42.0 43.0
30.0 41.0 40.0
31.0 37.0 39.0
31.0 41.0 41.0
33.0 42.0 38.0
33.0 42.0 39.0
34.0 28.0 33.0
34.0 41.0 40.0
35.0 41.0 38.0
35.0 42.0 38.0
36.0 41.0 36.0
36.0 40.0 37.0
36.0 41.0 37.0
37.0 33.0 33.0
37.0 40.0 35.0
37.0 41.0 35.0
38.0 40.0 35.0
38.0 40.0 36.0
38.0 41.0 36.0
39.0 32.0 31.0
40.0 32.0 31.0
40.0 42.0 34.0
40.0 42.0 35.0
41.0 38.0 32.0
41.0 41.0 33.0
41.0 42.0 33.0
43.0 43.0 32.0
43.0 44.0 32.0
43.0 42.0 33.0
43.0 43.0 33.0
44.0 31.0 20.0
45.0 33.0 14.0
45.0 33.0 15.0
45.0 41.0 15.0
45.0 33.0 16.0
45.0 34.0 16.0
45.0 36.0 16.0
45.0 31.0 17.0
45.0 38.0 17.0
45.0 41.0 17.0
45.0 34.0 18.0
45.0 35.0 18.0
45.0 36.0 18.0
45.0 30.0 19.0
45.0 28.0 20.0
45.0 33.0 20.0
45.0 30.0 21.0
45.0 33.0 22.0
45.0 37.0 28.0
45.0 40.0 30.0
45.0 45.0 32.0
45.0 44.0 33.0
46.0 33.0 14.0
46.0 33.0 15.0
46.0 36.0 15.0
46.0 34.0 16.0
46.0 36.0 16.0
46.0 38.0 16.0
46.0 41.0 16.0
46.0 37.0 17.0
46.0 38.0 17.0
46.0 39.0 17.0
46.0 40.0 17.0
46.0 41.0 17.0
46.0 42.0 17.0
46.0 34.0 18.0
46.0 36.0 18.0
46.0 39.0 18.0
46.0 40.0 18.0
46.0 41.0 18.0
46.0 29.0 20.0
46.0 34.0 20.0
46.0 36.0 20.0
46.0 37.0 20.0
46.0 35.0 21.0
46.0 37.0 21.0
46.0 38.0 21.0
46.0 38.0 22.0
46.0 30.0 23.0
46.0 34.0 24.0
46.0 39.0 27.0
46.0 44.0 30.0
46.0 45.0 30.0
46.0 46.0 31.0
46.0 45.0 32.0
46.0 50.0 47.0
47.0 41.0 15.0
47.0 41.0 16.0
47.0 25.0 17.0
47.0 41.0 17.0
47.0 42.0 17.0
47.0 35.0 18.0
47.0 30.0 19.0
47.0 33.0 19.0
47.0 33.0 20.0
47.0 30.0 21.0
47.0 35.0 21.0
47.0 31.0 22.0
47.0 33.0 22.0
47.0 37.0 22.0
47.0 38.0 25.0
47.0 43.0 26.0
47.0 45.0 29.0
47.0 45.0 30.0
47.0 46.0 30.0
47.0 44.0 31.0
47.0 46.0 32.0
47.0 47.0 32.0
47.0 50.0 45.0
48.0 7.0 6.0
48.0 13.0 10.0
48.0 16.0 11.0
48.0 22.0 15.0
48.0 24.0 15.0
48.0 25.0 16.0
48.0 28.0 17.0
48.0 29.0 19.0
48.0 27.0 20.0
48.0 32.0 20.0
48.0 28.0 21.0
48.0 31.0 21.0
48.0 37.0 23.0
48.0 35.0 24.0
48.0 36.0 24.0
48.0 38.0 25.0
48.0 37.0 26.0
48.0 42.0 26.0
48.0 40.0 27.0
48.0 38.0 28.0
48.0 44.0 28.0
48.0 42.0 29.0
48.0 46.0 29.0
48.0 47.0 30.0
48.0 46.0 31.0
48.0 47.0 31.0
48.0 50.0 31.0
48.0 53.0 43.0
48.0 53.0 44.0
48.0 53.0 45.0
48.0 54.0 45.0
48.0 49.0 49.0
49.0 3.0 3.0
49.0 6.0 4.0
49.0 6.0 5.0
49.0 8.0 5.0
49.0 7.0 6.0
49.0 8.0 6.0
49.0 9.0 6.0
49.0 8.0 7.0
49.0 9.0 7.0
49.0 10.0 7.0
49.0 11.0 7.0
49.0 10.0 8.0
49.0 11.0 8.0
49.0 12.0 8.0
49.0 13.0 8.0
49.0 10.0 9.0
49.0 11.0 9.0
49.0 12.0 9.0
49.0 13.0 9.0
49.0 14.0 9.0
49.0 15.0 9.0
49.0 11.0 10.0
49.0 13.0 10.0
49.0 14.0 10.0
49.0 15.0 10.0
49.0 16.0 10.0
49.0 13.0 11.0
49.0 15.0 11.0
49.0 17.0 11.0
49.0 18.0 11.0
49.0 15.0 12.0
49.0 16.0 12.0
49.0 17.0 12.0
49.0 18.0 12.0
49.0 19.0 12.0
49.0 19.0 13.0
49.0 20.0 13.0
49.0 21.0 13.0
49.0 18.0 14.0
49.0 22.0 14.0
49.0 21.0 15.0
49.0 24.0 15.0
49.0 21.0 16.0
49.0 23.0 16.0
49.0 26.0 16.0
49.0 24.0 17.0
49.0 25.0 17.0
49.0 18.0 18.0
49.0 24.0 18.0
49.0 26.0 18.0
49.0 27.0 18.0
49.0 29.0 18.0
49.0 29.0 19.0
49.0 31.0 19.0
49.0 28.0 20.0
49.0 31.0 20.0
49.0 36.0 21.0
49.0 28.0 22.0
49.0 30.0 22.0
49.0 35.0 22.0
49.0 34.0 23.0
49.0 33.0 24.0
49.0 39.0 24.0
49.0 40.0 24.0
49.0 33.0 25.0
49.0 34.0 25.0
49.0 37.0 26.0
49.0 45.0 27.0
49.0 46.0 27.0
49.0 44.0 29.0
49.0 43.0 30.0
49.0 45.0 30.0
49.0 47.0 30.0
49.0 45.0 31.0
49.0 46.0 31.0
49.0 48.0 32.0
49.0 49.0 32.0
49.0 50.0 33.0
49.0 51.0 33.0
49.0 50.0 34.0
49.0 52.0 34.0
49.0 50.0 35.0
49.0 51.0 35.0
49.0 50.0 37.0
49.0 52.0 37.0
49.0 51.0 38.0
49.0 52.0 41.0
49.0 57.0 41.0
49.0 55.0 42.0
49.0 56.0 42.0
49.0 57.0 42.0
49.0 58.0 42.0
49.0 54.0 43.0
49.0 55.0 43.0
49.0 56.0 43.0
49.0 57.0 43.0
49.0 54.0 44.0
49.0 55.0 44.0
49.0 56.0 44.0
49.0 53.0 46.0
49.0 54.0 46.0
50.0 6.0 4.0
50.0 6.0 5.0
50.0 7.0 6.0
50.0 8.0 6.0
50.0 9.0 6.0
50.0 9.0 7.0
50.0 10.0 7.0
50.0 11.0 7.0
50.0 10.0 8.0
50.0 11.0 8.0
50.0 12.0 8.0
50.0 13.0 8.0
50.0 11.0 9.0
50.0 12.0 9.0
50.0 13.0 9.0
50.0 14.0 9.0
50.0 15.0 9.0
50.0 13.0 10.0
50.0 14.0 10.0
50.0 15.0 10.0
50.0 16.0 10.0
50.0 15.0 11.0
50.0 17.0 11.0
50.0 18.0 11.0
50.0 13.0 12.0
50.0 16.0 12.0
50.0 18.0 12.0
50.0 18.0 13.0
50.0 20.0 13.0
50.0 22.0 13.0
50.0 19.0 14.0
50.0 21.0 14.0
50.0 23.0 14.0
50.0 17.0 15.0
50.0 21.0 15.0
50.0 24.0 15.0
50.0 26.0 15.0
50.0 21.0 16.0
50.0 22.0 16.0
50.0 25.0 16.0
50.0 26.0 16.0
50.0 25.0 17.0
50.0 28.0 17.0
50.0 30.0 17.0
50.0 24.0 18.0
50.0 29.0 18.0
50.0 25.0 19.0
50.0 26.0 19.0
50.0 35.0 19.0
50.0 28.0 20.0
50.0 33.0 20.0
50.0 35.0 21.0
50.0 38.0 22.0
50.0 31.0 23.0
50.0 39.0 23.0
50.0 33.0 24.0
50.0 43.0 25.0
50.0 34.0 26.0
50.0 37.0 27.0
50.0 40.0 28.0
50.0 34.0 29.0
50.0 46.0 29.0
50.0 48.0 29.0
50.0 39.0 30.0
50.0 45.0 31.0
50.0 50.0 31.0
50.0 51.0 32.0
50.0 46.0 33.0
50.0 49.0 33.0
50.0 49.0 34.0
50.0 48.0 35.0
50.0 51.0 35.0
50.0 52.0 35.0
50.0 50.0 36.0
50.0 51.0 36.0
50.0 50.0 37.0
50.0 52.0 37.0
50.0 50.0 38.0
50.0 51.0 38.0
50.0 52.0 38.0
50.0 60.0 38.0
50.0 61.0 38.0
50.0 59.0 39.0
50.0 60.0 39.0
50.0 61.0 39.0
50.0 51.0 40.0
50.0 52.0 40.0
50.0 53.0 40.0
50.0 54.0 40.0
50.0 55.0 40.0
50.0 57.0 40.0
50.0 58.0 40.0
50.0 59.0 40.0
50.0 60.0 40.0
50.0 61.0 40.0
50.0 52.0 41.0
50.0 53.0 41.0
50.0 54.0 41.0
50.0 55.0 41.0
50.0 56.0 41.0
50.0 57.0 41.0
50.0 58.0 41.0
50.0 59.0 41.0
50.0 54.0 42.0
50.0 55.0 42.0
50.0 56.0 42.0
50.0 57.0 42.0
50.0 58.0 42.0
50.0 54.0 43.0
50.0 57.0 43.0
50.0 55.0 44.0
50.0 56.0 44.0
50.0 57.0 44.0
50.0 53.0 46.0
50.0 54.0 46.0
50.0 49.0 50.0
51.0 11.0 8.0
51.0 12.0 8.0
51.0 14.0 9.0
51.0 13.0 10.0
51.0 15.0 10.0
51.0 15.0 11.0
51.0 16.0 11.0
51.0 17.0 11.0
51.0 16.0 12.0
51.0 17.0 12.0
51.0 18.0 12.0
51.0 19.0 12.0
51.0 15.0 13.0
51.0 18.0 13.0
51.0 19.0 13.0
51.0 20.0 13.0
51.0 18.0 14.0
51.0 19.0 14.0
51.0 21.0 14.0
51.0 23.0 14.0
51.0 21.0 15.0
51.0 24.0 15.0
51.0 21.0 16.0
51.0 22.0 16.0
51.0 25.0 16.0
51.0 27.0 16.0
51.0 25.0 17.0
51.0 28.0 17.0
51.0 24.0 18.0
51.0 29.0 18.0
51.0 31.0 18.0
51.0 25.0 19.0
51.0 28.0 20.0
51.0 31.0 20.0
51.0 33.0 20.0
51.0 28.0 21.0
51.0 35.0 21.0
51.0 35.0 22.0
51.0 39.0 22.0
51.0 33.0 23.0
51.0 26.0 24.0
51.0 44.0 25.0
51.0 31.0 27.0
51.0 45.0 27.0
51.0 34.0 28.0
51.0 37.0 28.0
51.0 34.0 29.0
51.0 43.0 30.0
51.0 42.0 31.0
51.0 43.0 31.0
51.0 50.0 31.0
51.0 49.0 33.0
51.0 52.0 33.0
51.0 46.0 34.0
51.0 48.0 34.0
51.0 52.0 34.0
51.0 53.0 34.0
51.0 49.0 35.0
51.0 52.0 35.0
51.0 47.0 36.0
51.0 50.0 36.0
51.0 49.0 37.0
51.0 52.0 37.0
51.0 50.0 38.0
51.0 52.0 38.0
51.0 60.0 38.0
51.0 61.0 38.0
51.0 62.0 38.0
51.0 51.0 39.0
51.0 53.0 39.0
51.0 59.0 39.0
51.0 60.0 39.0
51.0 61.0 39.0
51.0 53.0 40.0
51.0 54.0 40.0
51.0 55.0 40.0
51.0 57.0 40.0
51.0 58.0 40.0
51.0 59.0 40.0
51.0 60.0 40.0
51.0 61.0 40.0
51.0 50.0 41.0
51.0 52.0 41.0
51.0 53.0 41.0
51.0 55.0 41.0
51.0 56.0 41.0
51.0 57.0 41.0
51.0 58.0 41.0
51.0 59.0 41.0
51.0 52.0 42.0
51.0 53.0 42.0
51.0 55.0 42.0
51.0 56.0 42.0
51.0 57.0 42.0
51.0 58.0 42.0
51.0 53.0 43.0
51.0 54.0 43.0
51.0 57.0 43.0
51.0 54.0 44.0
51.0 55.0 44.0
51.0 56.0 44.0
51.0 53.0 46.0
51.0 54.0 46.0
51.0 49.0 50.0
52.0 19.0 13.0
52.0 21.0 13.0
52.0 22.0 14.0
52.0 21.0 15.0
52.0 23.0 15.0
52.0 25.0 15.0
52.0 21.0 16.0
52.0 23.0 16.0
52.0 25.0 16.0
52.0 24.0 17.0
52.0 27.0 17.0
52.0 24.0 18.0
52.0 26.0 18.0
52.0 29.0 19.0
52.0 28.0 20.0
52.0 31.0 20.0
52.0 31.0 21.0
52.0 31.0 22.0
52.0 34.0 22.0
52.0 37.0 22.0
52.0 35.0 23.0
52.0 40.0 23.0
52.0 35.0 24.0
52.0 39.0 24.0
52.0 38.0 25.0
52.0 34.0 26.0
52.0 37.0 26.0
52.0 45.0 27.0
52.0 46.0 27.0
52.0 40.0 29.0
52.0 46.0 29.0
52.0 48.0 29.0
52.0 43.0 30.0
52.0 45.0 30.0
52.0 46.0 31.0
52.0 50.0 31.0
52.0 49.0 32.0
52.0 51.0 32.0
52.0 46.0 33.0
52.0 49.0 33.0
52.0 50.0 33.0
52.0 51.0 33.0
52.0 50.0 34.0
52.0 50.0 35.0
52.0 51.0 35.0
52.0 52.0 35.0
52.0 50.0 36.0
52.0 51.0 36.0
52.0 50.0 37.0
52.0 52.0 37.0
52.0 50.0 38.0
52.0 51.0 38.0
52.0 52.0 38.0
52.0 52.0 39.0
52.0 53.0 39.0
52.0 52.0 40.0
52.0 53.0 40.0
52.0 55.0 40.0
52.0 59.0 40.0
52.0 52.0 41.0
52.0 53.0 41.0
52.0 54.0 41.0
52.0 55.0 41.0
52.0 56.0 41.0
52.0 57.0 41.0
52.0 58.0 41.0
52.0 59.0 41.0
52.0 54.0 42.0
52.0 55.0 42.0
52.0 56.0 42.0
52.0 57.0 42.0
52.0 58.0 42.0
52.0 54.0 43.0
52.0 55.0 43.0
52.0 56.0 43.0
52.0 57.0 43.0
52.0 55.0 44.0
52.0 56.0 44.0
52.0 57.0 44.0
52.0 53.0 46.0
52.0 54.0 46.0
53.0 30.0 13.0
53.0 32.0 13.0
53.0 30.0 14.0
53.0 22.0 15.0
53.0 31.0 15.0
53.0 33.0 16.0
53.0 25.0 17.0
53.0 28.0 17.0
53.0 32.0 18.0
53.0 34.0 18.0
53.0 29.0 19.0
53.0 33.0 19.0
53.0 29.0 20.0
53.0 33.0 20.0
53.0 30.0 21.0
53.0 33.0 21.0
53.0 36.0 24.0
53.0 33.0 25.0
53.0 42.0 25.0
53.0 38.0 28.0
53.0 44.0 28.0
53.0 42.0 29.0
53.0 44.0 29.0
53.0 46.0 29.0
53.0 46.0 30.0
53.0 47.0 30.0
53.0 45.0 31.0
53.0 46.0 31.0
53.0 50.0 31.0
53.0 48.0 32.0
53.0 50.0 32.0
53.0 50.0 33.0
53.0 52.0 34.0
53.0 50.0 37.0
53.0 55.0 42.0
53.0 56.0 42.0
53.0 53.0 43.0
53.0 54.0 43.0
53.0 55.0 43.0
53.0 53.0 44.0
53.0 54.0 44.0
53.0 55.0 44.0
53.0 56.0 44.0
53.0 53.0 46.0
53.0 54.0 46.0
53.0 49.0 49.0
54.0 36.0 11.0
54.0 37.0 11.0
54.0 36.0 12.0
54.0 37.0 12.0
54.0 38.0 12.0
54.0 29.0 13.0
54.0 30.0 13.0
54.0 32.0 13.0
54.0 34.0 13.0
54.0 36.0 13.0
54.0 37.0 13.0
54.0 29.0 14.0
54.0 30.0 14.0
54.0 32.0 14.0
54.0 34.0 14.0
54.0 29.0 15.0
54.0 31.0 15.0
54.0 33.0 15.0
54.0 32.0 16.0
54.0 37.0 16.0
54.0 29.0 17.0
54.0 34.0 17.0
54.0 36.0 17.0
54.0 32.0 18.0
54.0 33.0 18.0
54.0 37.0 18.0
54.0 29.0 19.0
54.0 33.0 20.0
54.0 28.0 21.0
54.0 30.0 21.0
54.0 31.0 23.0
54.0 39.0 24.0
54.0 37.0 26.0
54.0 41.0 26.0
54.0 40.0 27.0
54.0 44.0 28.0
54.0 45.0 29.0
54.0 46.0 29.0
54.0 46.0 30.0
54.0 44.0 31.0
54.0 47.0 31.0
54.0 46.0 32.0
54.0 47.0 32.0
54.0 53.0 45.0
54.0 54.0 45.0
55.0 36.0 11.0
55.0 37.0 11.0
55.0 38.0 11.0
55.0 36.0 12.0
55.0 37.0 12.0
55.0 38.0 12.0
55.0 32.0 13.0
55.0 34.0 13.0
55.0 36.0 13.0
55.0 37.0 13.0
55.0 38.0 13.0
55.0 31.0 15.0
55.0 33.0 16.0
55.0 34.0 17.0
55.0 36.0 17.0
55.0 34.0 18.0
55.0 30.0 20.0
55.0 37.0 22.0
55.0 34.0 24.0
55.0 43.0 26.0
55.0 39.0 27.0
55.0 44.0 30.0
55.0 45.0 30.0
55.0 46.0 31.0
55.0 45.0 32.0
55.0 50.0 45.0
55.0 50.0 47.0
56.0 37.0 28.0
56.0 45.0 32.0
57.0 40.0 30.0
57.0 44.0 33.0
58.0 43.0 32.0
58.0 44.0 32.0
58.0 42.0 33.0
59.0 43.0 34.0
60.0 38.0 32.0
60.0 41.0 33.0
61.0 42.0 33.0
61.0 42.0 34.0
61.0 42.0 35.0
62.0 32.0 31.0
63.0 40.0 35.0
63.0 40.0 36.0
63.0 41.0 36.0
64.0 33.0 33.0
64.0 40.0 35.0
64.0 41.0 35.0
65.0 41.0 36.0
65.0 40.0 37.0
65.0 41.0 37.0
66.0 41.0 38.0
66.0 42.0 38.0
67.0 28.0 33.0
67.0 41.0 40.0
68.0 42.0 39.0
70.0 37.0 39.0
70.0 41.0 41.0
70.0 41.0 42.0
71.0 42.0 43.0
72.0 42.0 43.0
73.0 21.0 32.0
74.0 30.0 38.0
74.0 41.0 45.0
75.0 42.0 47.0
76.0 22.0 38.0
76.0 42.0 46.0
77.0 29.0 40.0
79.0 21.0 39.0
79.0 28.0 42.0
79.0 35.0 46.0
79.0 42.0 50.0
80.0 42.0 50.0
80.0 42.0 51.0
81.0 26.0 42.0
81.0 41.0 50.0
81.0 42.0 50.0
81.0 42.0 51.0
82.0 41.0 51.0
82.0 42.0 51.0
84.0 16.0 37.0
84.0 25.0 43.0
85.0 25.0 46.0
86.0 18.0 42.0
86.0 23.0 47.0
87.0 16.0 45.0
87.0 22.0 49.0
87.0 22.0 52.0
90.0 13.0 51.0
90.0 19.0 55.0
91.0 10.0 46.0
91.0 12.0 55.0
98.0 3.0 60.0
